-0.13965578 0.3371653 0.3760032 
-0.13001063 0.33534986 0.3855763 
-0.12062916 0.33318582 0.3951876 
-0.11126373 0.33102417 0.4047835 
-0.10212471 0.32855895 0.41441518 
-0.0950058 0.32316226 0.42453507 
-0.08230215 0.32596633 0.43323275 
-0.07218688 0.32502666 0.44254658 
-0.27828863 0.43575886 0.20483771 
-0.25653195 0.44918728 0.21308786 
-0.23356138 0.46437526 0.22103149 
-0.21780404 0.47050723 0.22973387 
-0.20554008 0.47223768 0.2388156 
-0.20022991 0.4649821 0.24882296 
-0.18156618 0.4751809 0.25690243 
-0.18049707 0.4623659 0.2675341 
-0.17023791 0.46162844 0.27678952 
-0.16499726 0.45423958 0.28683904 
-0.2150465 0.372649 0.30633718 
-0.21434094 0.3586175 0.31758395 
-0.20401087 0.35753343 0.32716256 
-0.19226107 0.35842624 0.33644414 
-0.1867882 0.3507575 0.346903 
-0.17452718 0.35242972 0.3560264 
-0.16496128 0.350426 0.36565515 
-0.15707946 0.3460934 0.375624 
-0.147712 0.34385067 0.38526598 
-0.13912195 0.3405313 0.395066 
-0.12835918 0.34031904 0.40434974 
-0.12200719 0.33383265 0.41465634 
-0.11229948 0.3321589 0.42415488 
-0.10566856 0.32605097 0.43441063 
-0.094822586 0.32607546 0.44358522 
-0.26048756 0.44659466 0.23260246 
-0.23767002 0.46154535 0.24043216 
-0.21820797 0.47240633 0.248557 
-0.21092111 0.46769843 0.25831133 
-0.20138948 0.4659037 0.26773256 
-0.19174302 0.46428677 0.27711478 
-0.18511093 0.4587316 0.2869644 
-0.23620431 0.37672296 0.30655724 
-0.23237231 0.36694822 0.31727034 
-0.22174986 0.36620653 0.32680708 
-0.21454869 0.36089516 0.33695078 
-0.20757385 0.355264 0.34714788 
-0.19717984 0.3542809 0.35667643 
-0.18700178 0.35304084 0.36621913 
-0.17614695 0.35277176 0.37559062 
-0.16449587 0.35365695 0.38475135 
-0.15582071 0.35044536 0.3945333 
-0.14954855 0.3438672 0.40486154 
-0.13961118 0.3424456 0.41434 
-0.1317625 0.33808538 0.4243027 
-0.12116874 0.33765495 0.4335771 
-0.11329605 0.3333503 0.44351763 
-0.26481003 0.4435439 0.25222725 
-0.24334443 0.45672396 0.26012045 
-0.22065143 0.47168443 0.26767352 
-0.20918071 0.4723712 0.27679265 
-0.20422262 0.46465105 0.2869158 
-0.25796342 0.38015464 0.30686256 
-0.2536482 0.37104878 0.3175134 
-0.24269603 0.37066457 0.32702208 
-0.23840585 0.36146164 0.33772656 
-0.22464986 0.36487088 0.34666878 
-0.2134985 0.36486447 0.35605362 
-0.20771581 0.35763612 0.36649114 
-0.19774792 0.3560758 0.37607878 
-0.18993522 0.35159296 0.3861069 
-0.17649136 0.3548748 0.39488477 
-0.16649182 0.35346806 0.40438047 
-0.16162461 0.34493023 0.41505766 
-0.15224944 0.3426721 0.4246847 
-0.14046782 0.34383914 0.43369487 
-0.13699545 0.3332573 0.44477493 
-0.26684508 0.44340265 0.27158132 
-0.24541278 0.456515 0.27935004 
-0.22565413 0.4676827 0.28722745 
-0.27891892 0.38478363 0.30701858 
-0.27176774 0.3793909 0.3172014 
-0.26278266 0.3763799 0.32707015 
-0.2562051 0.37022105 0.3373677 
-0.2472028 0.367244 0.34722447 
-0.23648243 0.36656612 0.35673398 
-0.22830677 0.36252826 0.36672246 
-0.21928021 0.35963774 0.3765323 
-0.20497979 0.36390096 0.38520187 
-0.19996881 0.35561934 0.39583644 
-0.19258597 0.35053775 0.40597168 
-0.18378437 0.34740114 0.4157842 
-0.17060237 0.35035065 0.42453748 
-0.16079974 0.3486744 0.43405396 
-0.15463044 0.34193096 0.44446388 
-0.29571727 0.38029647 0.31787208 
-0.2846912 0.37984872 0.327426 
-0.27798963 0.37383768 0.33772752 
-0.2682508 0.3717686 0.3474769 
-0.25681382 0.3719542 0.35687786 
-0.24643739 0.37079278 0.3664486 
-0.23551692 0.37039077 0.37587863 
-0.2300897 0.36269635 0.3864348 
-0.21716103 0.3650421 0.39538908 
-0.20585956 0.36526713 0.40464604 
-0.20128173 0.3564013 0.41541073 
-0.1917844 0.35421103 0.42505342 
-0.18213126 0.35226014 0.43463868 
-0.17078197 0.35268614 0.44377813 
-0.2888214 0.3770416 0.34762567 
-0.27903906 0.3749999 0.35737062 
-0.26363257 0.38031465 0.36598566 
-0.26133332 0.3685594 0.37717545 
-0.24939972 0.36942077 0.3864178 
-0.24007523 0.366882 0.39617443 
-0.23539895 0.35816067 0.40694606 
-0.21940933 0.36457443 0.41517845 
-0.20952979 0.36286432 0.42474264 
-0.20388345 0.35543305 0.43530253 
-0.19495213 0.35245365 0.44507998 
-0.2862453 0.38287187 0.3665794 
-0.27934515 0.37712446 0.37686548 
-0.26571214 0.38012564 0.3857696 
-0.26157844 0.37077194 0.3966326 
-0.2507024 0.3702406 0.40606293 
-0.2395875 0.37007034 0.41540387 
-0.23345353 0.3633085 0.4258622 
-0.22626764 0.3579275 0.4360934 
-0.21350305 0.36006 0.44496924 
-0.29119232 0.37902227 0.38700572 
-0.28054392 0.37809283 0.39653528 
-0.27372807 0.37221825 0.4068663 
-0.2624117 0.372213 0.41620627 
-0.25119382 0.37212896 0.4255282 
-0.24043499 0.371487 0.43491852 
-0.23583342 0.36268777 0.4457667 
-0.29086053 0.38196176 0.40637523 
-0.28415865 0.37594107 0.41674417 
-0.26988468 0.37973875 0.4254071 
-0.2676852 0.3678503 0.43681464 
-0.30009052 0.3726314 0.42787206 
-0.28023022 0.3835301 0.43526062 
-0.3046758 0.33193794 0.4457719 
-0.29699665 0.3415185 0.44826704 
-0.29232162 0.35376048 0.444246 
-0.283638 0.36241895 0.44894803 
-0.27542934 0.37146023 0.45265248 
-0.32633576 0.27204412 0.44241023 
-0.31764078 0.28083432 0.44705537 
-0.3117675 0.29190293 0.44571143 
-0.3075914 0.30442148 0.4406956 
-0.2985874 0.3128891 0.44606042 
-0.29084066 0.32238495 0.44874525 
-0.28476658 0.3333286 0.44779503 
-0.27997136 0.34543902 0.4440133 
-0.27523476 0.3576604 0.4400514 
-0.26759446 0.36725175 0.442502 
-0.33698875 0.21956451 0.44834274 
-0.3316745 0.23094621 0.44590324 
-0.3271387 0.24296744 0.4417851 
-0.31933695 0.25247684 0.44455856 
-0.309761 0.2605375 0.45115006 
-0.30696923 0.27404422 0.4432246 
-0.29999387 0.28419566 0.44424862 
-0.2924634 0.29387337 0.44648525 
-0.2862338 0.30464253 0.44589657 
-0.2775599 0.31329888 0.45067123 
-0.27459195 0.3269482 0.4428722 
-0.26804748 0.33749083 0.44293407 
-0.2601346 0.34678856 0.44605336 
-0.25538594 0.3589921 0.44207907 
-0.24633057 0.3671888 0.44780532 
-0.3505118 0.16970323 0.4480528 
-0.34662285 0.18198533 0.44271952 
-0.33766004 0.1906722 0.44792804 
-0.3306019 0.20070255 0.44918457 
-0.32612923 0.21265917 0.44498563 
-0.3189675 0.22262639 0.44644827 
-0.3133668 0.23379172 0.44458568 
-0.30773503 0.24496266 0.44276294 
-0.30074576 0.25507462 0.44384733 
-0.29549968 0.26660162 0.44114944 
-0.28354827 0.27260625 0.4530707 
-0.2827237 0.28785333 0.4406628 
-0.27304608 0.29567137 0.4476795 
-0.26661953 0.30624145 0.44754168 
-0.26068604 0.31725773 0.44629315 
-0.25432935 0.3279158 0.4459759 
-0.25131288 0.34164798 0.43808803 
-0.24202535 0.3496476 0.4443788 
-0.23512562 0.3598319 0.4452692 
-0.36773968 0.12255701 0.44004136 
-0.35914895 0.13160007 0.4444332 
-0.35271314 0.14204752 0.4444127 
-0.34805888 0.1537228 0.44068393 
-0.34284052 0.16505565 0.43808737 
-0.33206943 0.1724801 0.4471222 
-0.3266099 0.18364376 0.44503045 
-0.31999663 0.19398984 0.4453604 
-0.31184056 0.20318192 0.44898334 
-0.30719313 0.21501213 0.44510493 
-0.30041152 0.22524069 0.4457866 
-0.29362816 0.23546593 0.44647384 
-0.28699294 0.24580823 0.44683915 
-0.2823612 0.25779042 0.44280076 
-0.27590168 0.26831117 0.44274884 
-0.26792213 0.27755377 0.4460685 
-0.26208544 0.2886035 0.44463015 
-0.253584 0.29734775 0.4491611 
-0.24991699 0.31034005 0.44280353 
-0.245706 0.32293138 0.43760166 
-0.23653916 0.33104113 0.44367632 
-0.23193029 0.34333834 0.43932045 
-0.22565344 0.35411602 0.43877015 
-0.35787702 0.10180301 0.4479179 
-0.35414085 0.11394112 0.44236946 
-0.34371394 0.121727675 0.45065418 
-0.33588696 0.13117293 0.4535931 
-0.3322086 0.14343517 0.44784623 
-0.32578605 0.15385576 0.4478248 
-0.31920078 0.1641672 0.44814306 
-0.3131322 0.17485546 0.44735575 
-0.31063318 0.18819207 0.4388905 
-0.30125937 0.19647895 0.4451663 
-0.2935274 0.20594895 0.4479424 
-0.29073057 0.21922846 0.43996847 
-0.2791807 0.22568835 0.45111844 
-0.27494174 0.23790064 0.44624394 
-0.26917344 0.24892874 0.4447042 
-0.26097977 0.2579619 0.44855922 
-0.25633913 0.26996455 0.4444683 
-0.247992 0.27883062 0.44870204 
-0.2423329 0.2900061 0.4468668 
-0.23638773 0.30095738 0.44565797 
-0.23102024 0.31245562 0.4430985 
-0.2220064 0.32063138 0.4489446 
-0.2177743 0.33322093 0.4437162 
-0.21064489 0.3431251 0.44520804 
-0.2050269 0.3544815 0.44314742 
-0.26283768 0.4283879 0.29054132 
-0.25637624 0.44000447 0.2894878 
-0.24816649 0.44986284 0.2926147 
-0.34486818 0.09360375 0.44919336 
-0.34094605 0.10558627 0.44400233 
-0.33448502 0.11595707 0.4440786 
-0.32766706 0.12609267 0.44490314 
-0.323264 0.13788247 0.44060612 
-0.3167011 0.14822 0.44086474 
-0.30650723 0.15597501 0.44891196 
-0.30198285 0.16775002 0.44480932 
-0.29609546 0.17857519 0.44361237 
-0.28872848 0.18830928 0.44562483 
-0.28224725 0.19870286 0.4457101 
-0.27595404 0.20924832 0.44537547 
-0.26951763 0.21969108 0.4453487 
-0.264545 0.2313218 0.44204688 
-0.25545102 0.23961759 0.44795716 
-0.24723908 0.24858138 0.45193788 
-0.24330322 0.26113477 0.44624153 
-0.23935674 0.27375954 0.44049528 
-0.23018935 0.28187445 0.44668156 
-0.2245302 0.29305342 0.44481868 
-0.21806264 0.30352843 0.44480863 
-0.2123249 0.31468585 0.4430826 
-0.20278618 0.32229698 0.45028615 
-0.1989006 0.33522707 0.44416803 
-0.19159898 0.34492388 0.44611737 
-0.25020126 0.4197869 0.28985584 
-0.24441442 0.43205416 0.28718087 
-0.2398091 0.4455739 0.2815922 
-0.23081641 0.45461997 0.2866605 
-0.22273807 0.46456876 0.28953516 
-0.3363944 0.08829269 0.44107932 
-0.32802868 0.097410455 0.44518447 
-0.32050663 0.10704427 0.44753924 
-0.3158991 0.118621536 0.44369757 
-0.30692375 0.12725024 0.44917566 
-0.30224365 0.13882554 0.44544503 
-0.29788622 0.15068224 0.44096673 
-0.28773174 0.15839079 0.4490763 
-0.28089246 0.1684578 0.45000014 
-0.27640504 0.18029055 0.4457397 
-0.26820865 0.18933953 0.4496539 
-0.26214504 0.20001054 0.4488478 
-0.2566552 0.21115397 0.44673818 
-0.25050336 0.22179541 0.44609216 
-0.24470294 0.23274085 0.44463447 
-0.23903832 0.24382529 0.44284272 
-0.23079538 0.25274295 0.4469493 
-0.22657396 0.26510015 0.44180033 
-0.21925217 0.27479714 0.44379482 
-0.21131739 0.28392506 0.4472418 
-0.2044927 0.2940274 0.44811055 
-0.20079146 0.30702412 0.4415834 
-0.19352636 0.31675097 0.4434646 
-0.1865542 0.32674083 0.44466025 
-0.17922439 0.33637246 0.4467276 
-0.17322645 0.34730527 0.44557887 
-0.22916816 0.42078 0.29297078 
-0.22501846 0.43470228 0.28625688 
-0.21526532 0.44287935 0.29332617 
-0.21088724 0.45666665 0.28708175 
-0.20285626 0.466611 0.28991348 
-0.33873597 0.0898716 0.40996197 
-0.31392586 0.08846376 0.44901967 
-0.31071493 0.10090074 0.442199 
-0.30149573 0.10937105 0.44824904 
-0.296932 0.12097622 0.44426855 
-0.28811044 0.12965275 0.44951984 
-0.28462693 0.1420817 0.44312134 
-0.27864745 0.15278019 0.44214723 
-0.27244428 0.16333136 0.44165218 
-0.2636676 0.17195466 0.44688514 
-0.2571873 0.18228285 0.4470214 
-0.25084782 0.19272594 0.44683522 
-0.24384426 0.20264943 0.44814807 
-0.23780249 0.21334216 0.44727415 
-0.23115428 0.22355253 0.4477766 
-0.22744359 0.23622838 0.44149125 
-0.21981905 0.24564904 0.44422168 
-0.21117766 0.25415748 0.449357 
-0.20950668 0.26876968 0.43814722 
-0.19955434 0.27608502 0.44639927 
-0.19398707 0.2873121 0.44430098 
-0.18468535 0.2950969 0.4511216 
-0.18211105 0.30916896 0.441794 
-0.17427993 0.3183097 0.445102 
-0.16622941 0.32719785 0.44898137 
-0.1604733 0.3383263 0.44726306 
-0.21632606 0.41190755 0.29307345 
-0.21168695 0.4253019 0.28752387 
-0.20378271 0.43536067 0.2900793 
-0.19646405 0.44601518 0.2911833 
-0.18999119 0.457578 0.29014626 
-0.33680293 0.08872904 0.38744485 
-0.30370027 0.0820343 0.44468302 
-0.296443 0.09179023 0.4465535 
-0.29040113 0.10235073 0.44579083 
-0.28415024 0.112782665 0.44547158 
-0.27629963 0.12210306 0.44866815 
-0.26710582 0.1304317 0.45487252 
-0.26445308 0.1434522 0.44656128 
-0.25755796 0.15343504 0.44765934 
-0.2544135 0.16624306 0.44030592 
-0.24592236 0.17503643 0.4449882 
-0.24117558 0.18671049 0.4411759 
-0.23290716 0.19563061 0.44539544 
-0.22764808 0.20694728 0.44271046 
-0.22180156 0.21781911 0.4413513 
-0.21453403 0.22751951 0.4432903 
-0.20675942 0.23676762 0.4464389 
-0.2016054 0.24826537 0.44342023 
-0.1938059 0.2574633 0.44665474 
-0.18659686 0.26715854 0.44850886 
-0.18184724 0.27909422 0.44445208 
-0.1745475 0.28870866 0.44652236 
-0.16795674 0.29897612 0.44688195 
-0.15946794 0.3074112 0.4519014 
-0.15626709 0.3209847 0.44390646 
-0.1471254 0.32873297 0.45058277 
-0.20617822 0.4057591 0.28655392 
-0.19865504 0.41619048 0.28819048 
-0.19002177 0.42543903 0.29265806 
-0.18504943 0.43854904 0.28782624 
-0.18152507 0.45331 0.2791986 
-0.335918 0.08825554 0.36227962 
-0.2991245 0.07927606 0.42805016 
-0.28572828 0.08503412 0.44331318 
-0.28118148 0.096596025 0.43925196 
-0.27051798 0.10400059 0.44868788 
-0.26395255 0.1141747 0.4490961 
-0.2599148 0.12615788 0.44383928 
-0.25370198 0.13662592 0.44341722 
-0.24662511 0.14646393 0.444943 
-0.23924342 0.15605912 0.44717562 
-0.23359433 0.16696794 0.4454543 
-0.22708529 0.17722991 0.44569042 
-0.22108641 0.18790302 0.444739 
-0.21246755 0.19646315 0.44988832 
-0.20903374 0.20925964 0.44291142 
-0.20066725 0.21799202 0.44750312 
-0.19508173 0.22905946 0.44553047 
-0.1900637 0.24065492 0.44216862 
-0.18429849 0.25163633 0.44055787 
-0.17524464 0.2596694 0.44688964 
-0.1701853 0.27130482 0.4435536 
-0.16253485 0.2805632 0.4465276 
-0.15785974 0.29262576 0.442184 
-0.14861844 0.3003243 0.44912863 
-0.14166859 0.31019735 0.45042354 
-0.1389099 0.32426724 0.44117326 
-0.12996347 0.3321526 0.4474803 
-0.18499643 0.4064089 0.2905972 
-0.17921144 0.41860768 0.28784606 
-0.1714066 0.42868277 0.29027414 
-0.16411719 0.43929455 0.29138562 
-0.15908334 0.45240462 0.28659147 
-0.37749273 0.069139406 0.28818327 
-0.372154 0.08092914 0.28509408 
-0.3635208 0.09070277 0.2891353 
-0.33675376 0.08888003 0.33291084 
-0.297361 0.07834783 0.4049694 
-0.27132416 0.07583197 0.44827312 
-0.26585147 0.08671194 0.4462789 
-0.2590111 0.09667924 0.4473186 
-0.25436848 0.108184166 0.443414 
-0.24649152 0.11742647 0.44678548 
-0.2416671 0.12886165 0.44323394 
-0.23584929 0.13960771 0.44191158 
-0.2270527 0.1481199 0.44743612 
-0.22174959 0.15926638 0.44491673 
-0.2158284 0.16996469 0.44380292 
-0.20697388 0.17833495 0.44955653 
-0.20231323 0.19005895 0.44546717 
-0.19639304 0.20079543 0.44431484 
-0.19159514 0.2125019 0.4404579 
-0.18412879 0.22196782 0.44296739 
-0.17401798 0.22909124 0.451905 
-0.16971023 0.24128093 0.44680893 
-0.16397998 0.25225267 0.44512975 
-0.15802516 0.26304588 0.44397643 
-0.15251894 0.27428302 0.4416875 
-0.14538279 0.28399822 0.4434365 
-0.13963999 0.29505342 0.44169575 
-0.13317567 0.3054245 0.44175255 
-0.12749694 0.31659365 0.43980044 
-0.119057044 0.32496595 0.44490135 
-0.17395473 0.39933154 0.28642818 
-0.16768982 0.41102096 0.28488985 
-0.16084345 0.42211226 0.28484577 
-0.1532724 0.4324167 0.28670394 
-0.1466508 0.44376248 0.2860596 
-0.3907105 0.017084435 0.2899944 
-0.38471118 0.028369509 0.2884099 
-0.37832665 0.039456937 0.28763044 
-0.37201113 0.05059989 0.2866872 
-0.36415842 0.060837917 0.28907168 
-0.3572823 0.071652845 0.28933993 
-0.3514765 0.08313957 0.28725022 
-0.33750555 0.089452796 0.30319738 
-0.29540882 0.077300206 0.3819094 
-0.26064757 0.06909917 0.44510195 
-0.25448105 0.07950138 0.44465083 
-0.24873517 0.09020517 0.44323602 
-0.24255057 0.100623496 0.44279778 
-0.23637028 0.11105639 0.44233835 
-0.23092288 0.122036554 0.44017836 
-0.22223136 0.13063377 0.44550666 
-0.21484277 0.14016083 0.44785443 
-0.20861138 0.15056002 0.44750905 
-0.20304708 0.16149524 0.44557878 
-0.19690788 0.17199978 0.4449836 
-0.1906838 0.18244892 0.44457763 
-0.18351062 0.19211993 0.44644213 
-0.17810462 0.20327148 0.44404796 
-0.17067946 0.21271789 0.44653293 
-0.16604477 0.22459072 0.4422061 
-0.15775591 0.23325782 0.44682717 
-0.1508787 0.24315682 0.4479981 
-0.14491993 0.25389853 0.44688368 
-0.1374082 0.26319686 0.44965145 
-0.13219412 0.27467126 0.44663543 
-0.12474566 0.28400996 0.4492633 
-0.11937658 0.29538763 0.44658816 
-0.113123156 0.3059141 0.44615266 
-0.10632964 0.31589773 0.44710752 
-0.100743726 0.32714003 0.44490945 
-0.15306349 0.40011877 0.29016322 
-0.1496756 0.41488776 0.281011 
-0.13980742 0.42264825 0.28902823 
-0.13307554 0.43382052 0.28871632 
-0.12724586 0.44603434 0.28594947 
-0.4058057 -0.03362432 0.28765303 
-0.4000715 -0.022276124 0.28555757 
-0.39061055 -0.012864368 0.29136145 
-0.38654166 -0.0006038781 0.28568938 
-0.3784201 0.009492995 0.28866506 
-0.37320086 0.021196248 0.28539115 
-0.3670892 0.03242925 0.28401518 
-0.35994864 0.04307986 0.2848678 
-0.3507656 0.05250271 0.29021516 
-0.34408262 0.06340094 0.290088 
-0.33789986 0.07461933 0.28884062 
-0.32976586 0.08461468 0.2919372 
-0.29432502 0.076820545 0.35649535 
-0.25601342 0.06637512 0.42829186 
-0.24334814 0.07245034 0.4425503 
-0.23533772 0.08157624 0.4463134 
-0.2285788 0.09154443 0.447233 
-0.22367886 0.10284179 0.44385082 
-0.21652456 0.11253696 0.44567567 
-0.2086879 0.12170751 0.44911593 
-0.20454721 0.13365118 0.44387415 
-0.19779594 0.14364384 0.44475707 
-0.1924925 0.15477447 0.44218755 
-0.18623298 0.1651749 0.44187665 
-0.17978674 0.1754328 0.4420069 
-0.17433354 0.18652402 0.4397166 
-0.16479272 0.19417793 0.44739687 
-0.15841052 0.20447342 0.44738704 
-0.15285464 0.21550378 0.44532195 
-0.14568976 0.22512409 0.44723806 
-0.1400926 0.2361582 0.44523534 
-0.13499506 0.24768999 0.4419369 
-0.12653697 0.25609118 0.44713843 
-0.11839901 0.26473847 0.45158195 
-0.11529039 0.2782655 0.4431111 
-0.110083655 0.28981975 0.4399653 
-0.10093283 0.29741764 0.44707608 
-0.09565131 0.30892476 0.444097 
-0.08916556 0.31921357 0.44425985 
-0.14204414 0.39303988 0.2860781 
-0.1356368 0.40453267 0.28491777 
-0.12762702 0.4142743 0.28806758 
-0.12121858 0.425784 0.2868922 
-0.11423815 0.43666255 0.28726134 
-0.4169216 -0.08594679 0.29348767 
-0.41413593 -0.07334068 0.28532094 
-0.40330157 -0.06451077 0.2939926 
-0.40033805 -0.051895913 0.28610528 
-0.39193192 -0.04192958 0.2896998 
-0.38631052 -0.030562585 0.28737387 
-0.37664646 -0.021292493 0.29370654 
-0.3714673 -0.009671956 0.29040915 
-0.3664877 0.0021007857 0.28663516 
-0.360094 0.013126468 0.28590375 
-0.3524416 0.023443453 0.28792426 
-0.34361517 0.033055082 0.29255667 
-0.33940506 0.045386694 0.28697386 
-0.33291498 0.056393012 0.286418 
-0.32487836 0.066446036 0.28932673 
-0.31926292 0.07801546 0.28678742 
-0.2953074 0.07768882 0.3259272 
-0.25515184 0.06615883 0.40258217 
-0.23168805 0.06504127 0.44172075 
-0.22275707 0.073507644 0.4476744 
-0.2180285 0.084870264 0.4439063 
-0.21031544 0.09413986 0.44707873 
-0.20591845 0.10580666 0.44246742 
-0.19985881 0.11629388 0.44173637 
-0.19270015 0.12595972 0.443612 
-0.1855261 0.13559699 0.44554138 
-0.18050456 0.14691871 0.442289 
-0.17503704 0.15792796 0.4400736 
-0.16762458 0.16737492 0.44258064 
-0.1599961 0.17661624 0.44564447 
-0.15488963 0.1879736 0.44249392 
-0.14739548 0.19730614 0.44524837 
-0.13898909 0.2058039 0.4503204 
-0.13197497 0.21549562 0.45193592 
-0.13007137 0.22985591 0.44057575 
-0.12251957 0.23910227 0.4435103 
-0.11376708 0.24717622 0.44956943 
-0.109178066 0.2592027 0.4449074 
-0.10061744 0.26738882 0.4505429 
-0.09646049 0.2799186 0.44467476 
-0.08882612 0.28898856 0.44792032 
-0.08395181 0.30088618 0.44385034 
-0.07706565 0.31072184 0.44511366 
-0.12865826 0.38341355 0.2884099 
-0.12216848 0.3947679 0.28750345 
-0.1149974 0.4053845 0.28844303 
-0.10795588 0.41614234 0.28903046 
-0.101295754 0.42733914 0.28855854 
-0.4339834 -0.13525061 0.28679916 
-0.42935792 -0.12361539 0.28253764 
-0.418043 -0.114842065 0.2921431 
-0.41315114 -0.10329763 0.28841004 
-0.4068036 -0.09237377 0.28769252 
-0.40080413 -0.081273615 0.28622568 
-0.39315423 -0.07094325 0.28824472 
-0.38635668 -0.06021037 0.28845844 
-0.38094455 -0.048778083 0.2856916 
-0.37467182 -0.037752207 0.28474784 
-0.36598223 -0.027980318 0.28903776 
-0.36019742 -0.016688222 0.28702408 
-0.3514956 -0.0069706906 0.2913894 
-0.34524104 0.0040789912 0.29039156 
-0.33828714 0.014744533 0.29092985 
-0.33243844 0.026058158 0.28899887 
-0.32613042 0.037124652 0.28807142 
-0.3193742 0.047933746 0.28813985 
-0.31254116 0.05870028 0.28837755 
-0.30554152 0.06936419 0.28899243 
-0.29480296 0.07759409 0.29820678 
-0.255866 0.066995144 0.372758 
-0.21789345 0.056184135 0.44594547 
-0.21429506 0.06828356 0.43952957 
-0.20682676 0.07773583 0.4421447 
-0.196818 0.085335776 0.45080474 
-0.19512865 0.098940395 0.43973097 
-0.1895732 0.10979349 0.43778822 
-0.18130527 0.11860827 0.44236135 
-0.17154945 0.12621692 0.4505984 
-0.1666124 0.13754801 0.44715652 
-0.15908906 0.14684008 0.45002466 
-0.15360357 0.15777943 0.44787946 
-0.14562005 0.1666581 0.45192185 
-0.14151011 0.1788005 0.4463 
-0.1347773 0.18873906 0.4472158 
-0.12948099 0.19994566 0.44448897 
-0.12091091 0.20823905 0.4500874 
-0.115613446 0.21947485 0.44733268 
-0.10922071 0.22972819 0.44737127 
-0.101717666 0.2389294 0.4502987 
-0.09465635 0.24852732 0.45209897 
-0.09066889 0.26114565 0.44579244 
-0.08388417 0.2710419 0.44683626 
-0.079141535 0.2830223 0.44241536 
-0.06982134 0.29029852 0.4502771 
-0.06661595 0.3039616 0.44162682 
-0.05811606 0.31203434 0.44733483 
-0.10852656 0.38478348 0.29076555 
-0.101812646 0.3958524 0.29050052 
-0.09749504 0.40966055 0.28352413 
-0.09028769 0.4202293 0.2845759 
-0.080736205 0.42802793 0.29228503 
-0.44737545 -0.18589541 0.2875763 
-0.44304702 -0.17428856 0.28279895 
-0.4353559 -0.16394311 0.28488714 
-0.42707726 -0.15384923 0.28820685 
-0.42068857 -0.14300476 0.28762513 
-0.41461077 -0.13201728 0.2863815 
-0.40608364 -0.122073494 0.29026717 
-0.39961568 -0.11124881 0.28983694 
-0.39285254 -0.10054853 0.29002354 
-0.3873782 -0.08924284 0.28745335 
-0.38124034 -0.07822138 0.2862742 
-0.37622476 -0.066632085 0.2826526 
-0.3647856 -0.05821729 0.292933 
-0.36080825 -0.046080682 0.28702924 
-0.35155395 -0.036642775 0.29263934 
-0.34703457 -0.024719192 0.28785232 
-0.3400411 -0.014094702 0.28849813 
-0.3340026 -0.0029355837 0.28701282 
-0.32444072 0.00622575 0.2934169 
-0.32088673 0.018842 0.28631863 
-0.31210998 0.028417617 0.29099634 
-0.30038488 0.03614354 0.302459 
-0.29438132 0.047318395 0.30089965 
-0.28672156 0.0574612 0.3031444 
-0.27980712 0.068069614 0.30367607 
-0.25620365 0.06758851 0.3432505 
-0.2166911 0.055862885 0.420736 
-0.19818883 0.05777159 0.44940543 
-0.19510981 0.07023586 0.4416772 
-0.18874632 0.080432944 0.44171986 
-0.17978767 0.08872948 0.44801506 
-0.17329067 0.09880025 0.44840878 
-0.16896048 0.11052754 0.4435104 
-0.16334501 0.121320106 0.44170192 
-0.15560305 0.13045318 0.44512177 
-0.14776209 0.13947016 0.44882506 
-0.14445929 0.15219001 0.4412043 
-0.13734452 0.16180837 0.44308642 
-0.1291655 0.17049809 0.4476862 
-0.121266656 0.17938024 0.45162398 
-0.117107294 0.19154258 0.4459952 
-0.111204155 0.20220527 0.44479653 
-0.10675355 0.21423002 0.43979144 
-0.09929979 0.22350593 0.4425872 
-0.09029854 0.23127127 0.44949952 
-0.08457361 0.24214363 0.44779006 
-0.07672012 0.2509341 0.45174715 
-0.071200974 0.26203617 0.44946072 
-0.06613323 0.27364054 0.44590995 
-0.05966219 0.2838313 0.44613722 
-0.05248123 0.29326946 0.44831443 
-0.04528214 0.30266485 0.45056558 
-0.096541636 0.37659732 0.28961843 
-0.08867562 0.38634568 0.29261065 
-0.082778364 0.39831167 0.29006118 
-0.07709825 0.41057494 0.28684625 
-0.070812516 0.42217502 0.28531653 
-0.46603972 -0.24731877 0.2909241 
-0.46283296 -0.23553385 0.2840246 
-0.45498645 -0.2252449 0.28644887 
-0.44679543 -0.21509437 0.28959388 
-0.4425152 -0.20356867 0.28476104 
-0.43457016 -0.1933396 0.28741255 
-0.42958876 -0.18200922 0.2839567 
-0.42274415 -0.17136367 0.28433272 
-0.41485524 -0.16113372 0.2868894 
-0.40682554 -0.15098207 0.28976318 
-0.40318337 -0.13900661 0.28339413 
-0.39676422 -0.12815957 0.2828481 
-0.38816428 -0.1182673 0.28694648 
-0.3797379 -0.108333364 0.29071093 
-0.3754843 -0.096490964 0.2855039 
-0.36855897 -0.085861854 0.28603205 
-0.3628032 -0.07466137 0.2840077 
-0.3552358 -0.0643393 0.28593028 
-0.34795293 -0.053886384 0.2872403 
-0.34034127 -0.043613944 0.2892886 
-0.3343131 -0.03250936 0.28782016 
-0.32385227 -0.023811989 0.29627717 
-0.31570044 -0.013907874 0.29961324 
-0.30695176 -0.004376547 0.3043362 
-0.3001038 0.006221124 0.30476764 
-0.2917202 0.015901197 0.30872467 
-0.28579795 0.027047405 0.30703557 
-0.2758233 0.035688374 0.3147376 
-0.26663557 0.044749353 0.3206852 
-0.26145366 0.056356717 0.31727675 
-0.2524612 0.06547646 0.32283625 
-0.21838404 0.057514697 0.38816637 
-0.18710303 0.05072922 0.44759172 
-0.18129231 0.061248742 0.44636816 
-0.17516343 0.0715595 0.44589445 
-0.16808602 0.0811844 0.44772252 
-0.16438797 0.09332884 0.44127116 
-0.15676156 0.10255203 0.44443637 
-0.15044646 0.11276597 0.44437525 
-0.14478879 0.123509996 0.4426618 
-0.13805783 0.13341118 0.44362235 
-0.13086882 0.14292815 0.44574952 
-0.12662204 0.15490401 0.44039226 
-0.11688186 0.16223682 0.4490635 
-0.10998745 0.17195605 0.4504871 
-0.107639365 0.18571725 0.4400929 
-0.09910956 0.1940037 0.44574547 
-0.09319489 0.20464352 0.4445708 
-0.08649276 0.21456315 0.4454638 
-0.08032075 0.22498685 0.44494477 
-0.07325709 0.23455226 0.44681183 
-0.06719413 0.24509631 0.445985 
-0.060254652 0.25476947 0.44753188 
-0.055268582 0.26644608 0.4437235 
-0.048316184 0.27611414 0.44529745 
-0.043027233 0.28754863 0.44224802 
-0.038023468 0.29934365 0.43834606 
-0.02969144 0.30750686 0.44379574 
-0.07914517 0.38088495 0.28463182 
-0.070519336 0.38974082 0.28985232 
-0.06579153 0.40309292 0.28386754 
-0.05638232 0.41096145 0.29142717 
-0.051036872 0.42365617 0.28716058 
-0.4798144 -0.297111 0.2905459 
-0.47387466 -0.28629455 0.28920844 
-0.46684408 -0.2757838 0.29003915 
-0.46208784 -0.2645792 0.28628987 
-0.45356444 -0.25452358 0.29012653 
-0.44841284 -0.24340132 0.2871332 
-0.44162777 -0.23279294 0.28744557 
-0.43615285 -0.2217293 0.28506112 
-0.42682996 -0.21200658 0.29060155 
-0.4206316 -0.20118904 0.28970066 
-0.41446662 -0.19034457 0.28871498 
-0.41108802 -0.17840579 0.28186077 
-0.39949012 -0.16966185 0.29228234 
-0.39287704 -0.1589819 0.2922283 
-0.38957033 -0.1469093 0.28511164 
-0.38139123 -0.13685475 0.28836673 
-0.3759311 -0.12562785 0.28578532 
-0.3678937 -0.11553519 0.2887604 
-0.3593045 -0.105724014 0.29296586 
-0.35247287 -0.09511563 0.29335704 
-0.3470993 -0.083795354 0.2905308 
-0.33974257 -0.07342857 0.2920652 
-0.3307026 -0.06393223 0.29736522 
-0.322518 -0.05403992 0.30080038 
-0.3144631 -0.044109654 0.30397615 
-0.3062482 -0.034295697 0.30754513 
-0.29782474 -0.024631789 0.31162515 
-0.29251048 -0.013227317 0.30860984 
-0.2805751 -0.005657759 0.32083938 
-0.27494043 0.0055493475 0.31857428 
-0.2642763 0.013714119 0.32802537 
-0.2573898 0.02413672 0.32870504 
-0.24937561 0.033838358 0.3320527 
-0.24109098 0.04333157 0.33607754 
-0.23304787 0.0529451 0.33956674 
-0.21304083 0.054399494 0.37189755 
-0.17698102 0.044353504 0.44350874 
-0.1690454 0.053366877 0.44744813 
-0.16421758 0.06458329 0.44380757 
-0.15703991 0.07411842 0.44591463 
-0.15084918 0.084376015 0.4455906 
-0.14587024 0.09557262 0.44222662 
-0.14008403 0.106185436 0.44084376 
-0.13262169 0.11548534 0.44368047 
-0.1259208 0.12537551 0.4446067 
-0.11806935 0.13430703 0.4484898 
-0.112069614 0.14476067 0.44763598 
-0.10550155 0.15474217 0.44824135 
-0.09979758 0.16548087 0.44658667 
-0.09291319 0.1751916 0.4480125 
-0.08611064 0.18496518 0.4492336 
-0.08237103 0.19757386 0.4422851 
-0.0724718 0.20445263 0.45179582 
-0.06630511 0.21481033 0.45132563 
-0.060119152 0.22516215 0.4508942 
-0.05634048 0.23793404 0.4438399 
-0.048363373 0.24653164 0.44828737 
-0.04259371 0.2573657 0.44664344 
-0.034817073 0.26610914 0.4505981 
-0.029961284 0.27794722 0.44635022 
-0.024470897 0.28915644 0.44383866 
-0.019297456 0.30076152 0.44037366 
-0.06532167 0.37056136 0.2889721 
-0.057328124 0.38007203 0.29248577 
-0.051957782 0.3926277 0.28835312 
-0.045440856 0.40387723 0.2875365 
-0.03807386 0.41410977 0.28922963 
-0.4969615 -0.34583214 0.28340584 
-0.48695216 -0.33605826 0.29012302 
-0.48235095 -0.32495648 0.28616947 
-0.47651377 -0.31414074 0.28463608 
-0.46914577 -0.3037262 0.2861501 
-0.4607864 -0.29360288 0.2896711 
-0.45605257 -0.28244206 0.2858817 
-0.4491012 -0.27191314 0.28656074 
-0.4402916 -0.26196814 0.29104236 
-0.4359803 -0.25060663 0.2863159 
-0.43102148 -0.2394096 0.28287297 
-0.4228799 -0.22926688 0.28600055 
-0.4171903 -0.21828227 0.28403464 
-0.4110476 -0.20743774 0.28299347 
-0.40388116 -0.19696099 0.28409624 
-0.39518437 -0.18707912 0.28845197 
-0.388917 -0.1762741 0.2876662 
-0.38353014 -0.16509752 0.2849776 
-0.3774306 -0.1541856 0.28379077 
-0.36710823 -0.14506608 0.2917409 
-0.35978302 -0.1347047 0.29323825 
-0.35288104 -0.12416228 0.2938184 
-0.34632456 -0.11346046 0.2936375 
-0.3381131 -0.103535786 0.29711697 
-0.32731974 -0.09489673 0.3063851 
-0.32186875 -0.08369132 0.30377564 
-0.31178448 -0.07481393 0.3115761 
-0.30357397 -0.06503684 0.3152113 
-0.29484466 -0.05557044 0.32006535 
-0.28788477 -0.04518388 0.3209106 
-0.28032154 -0.03513813 0.3231517 
-0.27153885 -0.025808556 0.3282429 
-0.26443452 -0.015548088 0.32946983 
-0.25619102 -0.0059763435 0.33338016 
-0.24710679 0.003043715 0.33931717 
-0.24485962 0.016271641 0.32906958 
-0.23794204 0.026643023 0.3298586 
-0.23106436 0.03703748 0.3305549 
-0.22527522 0.04815456 0.3286182 
-0.21154666 0.053904783 0.34598765 
-0.17771803 0.045511898 0.4128266 
-0.15923701 0.04720849 0.44264868 
-0.15263706 0.05714635 0.4433561 
-0.14583986 0.06693638 0.44455865 
-0.1379218 0.07587448 0.44858715 
-0.1323051 0.086537264 0.4468393 
-0.1266471 0.09719523 0.44516736 
-0.11931792 0.106544845 0.4477495 
-0.11279619 0.116526775 0.4482761 
-0.10677014 0.12692034 0.44751576 
-0.10273993 0.13902047 0.44152132 
-0.0961624 0.14900295 0.44214272 
-0.08863392 0.15814698 0.4452851 
-0.08283694 0.16881092 0.4438446 
-0.07590039 0.17845802 0.4454379 
-0.069419354 0.18851559 0.44581422 
-0.06270092 0.19834952 0.44683504 
-0.05645178 0.20863082 0.4465762 
-0.04852587 0.21726958 0.450937 
-0.045044597 0.23032008 0.44299054 
-0.038413122 0.24026226 0.4437473 
-0.033374775 0.2518611 0.4400124 
-0.024936242 0.25990957 0.4458795 
-0.01932456 0.27093965 0.44373176 
-0.013025019 0.28124967 0.44352853 
-0.0065292884 0.29134983 0.44388464 
-0.053026266 0.36194375 0.28909227 
-0.046071272 0.37261906 0.28962165 
-0.041215893 0.38577956 0.28390977 
-0.033111352 0.3951153 0.28783366 
-0.024869863 0.40423384 0.29222345 
-0.018518047 0.41565618 0.2909245 
-0.48953876 -0.36380228 0.28563815 
-0.4830339 -0.35320273 0.2854699 
-0.47633404 -0.3426442 0.28568327 
-0.46702614 -0.33274317 0.29111952 
-0.45953295 -0.3224112 0.29295027 
-0.4563546 -0.3109176 0.2860606 
-0.449635 -0.300351 0.28629947 
-0.44326288 -0.28968042 0.28582492 
-0.43424517 -0.27979657 0.2907774 
-0.4303099 -0.2683749 0.28527537 
-0.42139786 -0.2584918 0.2900457 
-0.41395938 -0.2481621 0.29178423 
-0.40858066 -0.23714139 0.28921273 
-0.4038916 -0.22584775 0.28515345 
-0.39675742 -0.21539348 0.28623098 
-0.38934147 -0.20504956 0.2879151 
-0.38527602 -0.1934334 0.28242877 
-0.37344968 -0.18481344 0.2936049 
-0.36486226 -0.17499 0.29787776 
-0.3578919 -0.1645322 0.29866797 
-0.35195148 -0.15363726 0.29720435 
-0.3416231 -0.14464445 0.30538577 
-0.3316164 -0.13558622 0.31294006 
-0.3278182 -0.12373799 0.30674097 
-0.31684828 -0.11521011 0.31653407 
-0.30836323 -0.10557555 0.32083338 
-0.3017171 -0.095067754 0.32100847 
-0.29363757 -0.08528521 0.32444632 
-0.28627196 -0.075162 0.3262814 
-0.27677423 -0.066189855 0.33304757 
-0.26979545 -0.055910513 0.33404467 
-0.26295295 -0.045560185 0.3347294 
-0.25829512 -0.033963267 0.33028907 
-0.25139397 -0.023622122 0.33108526 
-0.2461568 -0.0122896535 0.32793278 
-0.23710942 -0.0032432687 0.33383933 
-0.23242047 0.008463632 0.32933432 
-0.22652085 0.019455368 0.32769573 
-0.22089759 0.030652191 0.3253576 
-0.21286722 0.040279202 0.32887807 
-0.20828432 0.052216236 0.3239414 
-0.17397125 0.04357006 0.392651 
-0.14823218 0.040201847 0.44083095 
-0.1388027 0.048074838 0.4486639 
-0.13314511 0.058647215 0.44705844 
-0.12761727 0.069342814 0.44509557 
-0.118899964 0.0776146 0.451266 
-0.114278585 0.08903241 0.44695562 
-0.1086753 0.09972311 0.44512865 
-0.10247268 0.109953195 0.44483554 
-0.09431232 0.11856266 0.44967788 
-0.08823401 0.12888636 0.44906878 
-0.082368076 0.13940811 0.44787848 
-0.07759063 0.15091255 0.44374487 
-0.07062468 0.16050653 0.44545865 
-0.06299846 0.16947925 0.44898492 
-0.056441553 0.1794128 0.44962475 
-0.051465802 0.19085169 0.4459051 
-0.044784117 0.20068944 0.44686404 
-0.040639617 0.21303228 0.4407311 
-0.033435203 0.22237846 0.4431248 
-0.027347095 0.23284613 0.44237736 
-0.020563051 0.24260257 0.44360113 
-0.013496095 0.25204763 0.44565034 
-0.006514262 0.2615639 0.44747537 
-0.0012388265 0.2729498 0.44433147 
0.005139121 0.28314465 0.44437984 
0.012599573 0.2921038 0.44763383 
-0.03432466 0.3645847 0.28828016 
-0.028419495 0.3764838 0.28567296 
-0.019369554 0.38461715 0.29256833 
-0.014098537 0.3973217 0.28799516 
-0.008493519 0.40968186 0.2843714 
-0.46682075 -0.36108112 0.29224807 
-0.46632776 -0.34908134 0.28002042 
-0.45651716 -0.3392952 0.28651804 
-0.4499056 -0.32873383 0.28657 
-0.44372556 -0.3180517 0.28573495 
-0.4344608 -0.3082166 0.2912236 
-0.42947873 -0.29719278 0.2879188 
-0.4251209 -0.285946 0.28327796 
-0.4180715 -0.27547953 0.28419995 
-0.41045395 -0.26519758 0.2863177 
-0.40345797 -0.25472668 0.28714132 
-0.39652485 -0.2442373 0.28783476 
-0.38840556 -0.2341636 0.29105806 
-0.3784392 -0.22478047 0.29826784 
-0.37162724 -0.21429566 0.29875422 
-0.3651262 -0.2036918 0.2985664 
-0.35564998 -0.19424643 0.30485037 
-0.34747392 -0.18433528 0.30835027 
-0.33989438 -0.17420727 0.31056944 
-0.3303325 -0.16493925 0.31719688 
-0.32341614 -0.15457892 0.31800172 
-0.31604618 -0.14442462 0.31982538 
-0.30627254 -0.13538851 0.32707646 
-0.3013175 -0.12415102 0.32349116 
-0.29459772 -0.113723226 0.32387838 
-0.28245732 -0.10597909 0.33668175 
-0.27339727 -0.096802115 0.34252995 
-0.2718192 -0.08379204 0.33109975 
-0.2643242 -0.07380329 0.33332288 
-0.25912824 -0.06257974 0.33017454 
-0.25210392 -0.052336045 0.33129564 
-0.24341218 -0.04305053 0.33638078 
-0.24087216 -0.030223107 0.32683372 
-0.23360169 -0.020108648 0.32852656 
-0.22778305 -0.009120584 0.32672518 
-0.22081503 0.001176229 0.32768974 
-0.21537714 0.012444573 0.32491612 
-0.20834288 0.02270974 0.32603115 
-0.20320967 0.034234826 0.32244402 
-0.1972341 0.045234326 0.32090482 
-0.17115952 0.042286422 0.36976346 
-0.1381776 0.03386792 0.43668112 
-0.12877136 0.041752078 0.44454572 
-0.121342085 0.0510115 0.44744945 
-0.11583759 0.06169591 0.44542933 
-0.11009394 0.072226524 0.44399562 
-0.10238221 0.08123286 0.44766983 
-0.09715529 0.09219448 0.4448615 
-0.09257184 0.10372382 0.44030738 
-0.083388336 0.111474656 0.44792753 
-0.07705078 0.12156055 0.44801855 
-0.070930116 0.13184012 0.44751868 
-0.06527573 0.14254549 0.4457381 
-0.058714613 0.15246136 0.446406 
-0.05275432 0.16292836 0.44542092 
-0.044798788 0.17154215 0.4499501 
-0.03868144 0.181862 0.44940057 
-0.032152385 0.19179437 0.44999427 
-0.026101956 0.20220128 0.44923255 
-0.022838755 0.2154479 0.44049397 
-0.0146699855 0.22375688 0.44572905 
-0.0077117137 0.23327452 0.44752654 
0.0007674245 0.24114527 0.45378286 
0.0038548994 0.2548215 0.44426802 
0.00926963 0.26604956 0.4414978 
0.017647155 0.27396765 0.44752464 
0.023760047 0.2844208 0.4468218 
-0.022121465 0.3559979 0.28842443 
-0.015196356 0.3666467 0.2889299 
-0.010273912 0.3797377 0.2832656 
-0.0034623926 0.39057383 0.2833679 
0.004225316 0.40030858 0.2862055 
-0.45575944 -0.36774534 0.28883326 
-0.4511764 -0.3567446 0.2848029 
-0.44178292 -0.34689105 0.2905563 
-0.4381975 -0.3355949 0.2844336 
-0.42995638 -0.3254763 0.287854 
-0.4221531 -0.31526402 0.29039577 
-0.4170151 -0.30430886 0.28739837 
-0.41045818 -0.29373974 0.28733954 
-0.40174752 -0.2838232 0.29181433 
-0.39394483 -0.2736578 0.2944068 
-0.3857821 -0.26362953 0.29778823 
-0.37445968 -0.25469154 0.30796754 
-0.36825597 -0.24407265 0.30722827 
-0.36139014 -0.23367785 0.3079088 
-0.3546893 -0.22322378 0.30823177 
-0.345198 -0.21382476 0.31466013 
-0.33489403 -0.20480141 0.32294193 
-0.32662892 -0.19503865 0.32679778 
-0.31964388 -0.18478209 0.32784188 
-0.31246635 -0.17461224 0.32932258 
-0.30546084 -0.16437721 0.33042678 
-0.29746145 -0.15459183 0.33378696 
-0.29020524 -0.14449525 0.33548793 
-0.2847772 -0.13355169 0.33301687 
-0.27772176 -0.12336103 0.33425847 
-0.27214265 -0.112448305 0.33208898 
-0.2654325 -0.10207974 0.33252272 
-0.25919026 -0.09146734 0.33185896 
-0.25369796 -0.08044345 0.32941303 
-0.24517474 -0.07103699 0.33411905 
-0.24320917 -0.05802215 0.32323095 
-0.23685771 -0.04738318 0.32273117 
-0.22869922 -0.03778732 0.32658234 
-0.22361508 -0.026393093 0.32300493 
-0.21582021 -0.016607823 0.3260032 
-0.21082292 -0.00510386 0.32215083 
-0.20262995 0.004410249 0.32615343 
-0.19881321 0.016739609 0.3192996 
-0.19285987 0.027729452 0.31770757 
-0.18757759 0.039200995 0.31439555 
-0.17202632 0.043572035 0.33710417 
-0.135378 0.03268974 0.41400552 
-0.11592187 0.033383608 0.44768733 
-0.109529145 0.043363962 0.44798774 
-0.104253635 0.05419203 0.44537416 
-0.09901935 0.06508958 0.44261095 
-0.093564354 0.07585292 0.44038656 
-0.08427558 0.083566144 0.44831744 
-0.07872385 0.094254926 0.4463467 
-0.07431485 0.105931245 0.44126242 
-0.067841806 0.11591456 0.44170174 
-0.06084567 0.12544306 0.44356933 
-0.05458573 0.13560848 0.44343033 
-0.04893527 0.14633445 0.44159326 
-0.041213114 0.15517658 0.4455041 
-0.035565656 0.16592902 0.44363257 
-0.028471416 0.17532314 0.4458222 
-0.022639375 0.18593086 0.44443715 
-0.015117235 0.19487715 0.44787884 
-0.008911828 0.2051236 0.44755384 
-0.0046007778 0.21734501 0.44169438 
0.0037752625 0.2253586 0.4476776 
0.007637341 0.23815678 0.4403865 
0.016603954 0.2454631 0.44819614 
0.022782303 0.2557844 0.44774055 
0.029530847 0.26546997 0.44899642 
0.034542505 0.2771601 0.44496387 
0.040019758 0.2883647 0.44229186 
-0.0034473245 0.35854676 0.28785124 
0.0014300438 0.3716799 0.2819879 
0.010555397 0.3795994 0.28940177 
0.0154817775 0.3927613 0.28359345 
0.020286083 0.40617585 0.2772902 
-0.44231734 -0.3749416 0.29031065 
-0.43776283 -0.36397022 0.286209 
-0.43299958 -0.35300714 0.28249046 
-0.4235243 -0.34320018 0.28850308 
-0.41286054 -0.33375698 0.29705057 
-0.4070271 -0.3230696 0.2955569 
-0.4021437 -0.3120944 0.29203996 
-0.39141643 -0.3027925 0.30085915 
-0.3815707 -0.29330227 0.30788904 
-0.37537795 -0.28273028 0.3071677 
-0.36653012 -0.27300486 0.3121476 
-0.35783243 -0.26327252 0.3168509 
-0.35105482 -0.2529194 0.31742162 
-0.3425174 -0.24319147 0.3218427 
-0.333999 -0.23349488 0.3262648 
-0.32907057 -0.22248453 0.3227893 
-0.31906417 -0.21340299 0.3305636 
-0.31009305 -0.20398113 0.33610347 
-0.3060056 -0.19260693 0.33071527 
-0.29846096 -0.18263 0.33308005 
-0.29277855 -0.17186521 0.33122933 
-0.2858758 -0.16161886 0.33214352 
-0.28040576 -0.1507223 0.32976517 
-0.2725582 -0.14090942 0.3328558 
-0.2656436 -0.1306749 0.33380443 
-0.26302046 -0.118329465 0.32470843 
-0.25332028 -0.1094583 0.33216932 
-0.24997225 -0.09737123 0.3246602 
-0.24321981 -0.087004334 0.32517058 
-0.23884998 -0.07534228 0.31996638 
-0.23131187 -0.06538111 0.32233715 
-0.22214921 -0.05636555 0.32867405 
-0.21858577 -0.04414902 0.32140604 
-0.21258979 -0.03329741 0.32001996 
-0.20806974 -0.021523487 0.3149599 
-0.19781195 -0.013268491 0.32410797 
-0.19435397 -0.0007705025 0.31633666 
-0.18657386 0.009001587 0.3193521 
-0.18015279 0.019651692 0.31895244 
-0.17591271 0.0317993 0.31297347 
-0.17074122 0.043373898 0.30930278 
-0.13541293 0.033540264 0.3835635 
-0.10354303 0.025351144 0.44979274 
-0.09741669 0.035489462 0.44943708 
-0.09284147 0.046813663 0.4449783 
-0.08636016 0.056722812 0.44551438 
-0.08135556 0.067798026 0.44210288 
-0.0743318 0.07729332 0.44407293 
-0.06641748 0.08603795 0.4484768 
-0.06207969 0.09773693 0.44317403 
-0.055179153 0.10731331 0.44483277 
-0.04819325 0.11680065 0.44674397 
-0.04301849 0.12788464 0.44362736 
-0.03871712 0.13980901 0.43800756 
-0.030098839 0.14780949 0.44450358 
-0.024551509 0.1586361 0.44234186 
-0.017275989 0.16783144 0.445098 
-0.009190773 0.1762012 0.45022678 
-0.0046542287 0.18806618 0.44509456 
0.0015560141 0.19829668 0.44478607 
0.0062270164 0.21014118 0.43991747 
0.0153267095 0.21735783 0.44815162 
0.020396003 0.22882906 0.44441345 
0.028317073 0.2372146 0.4492306 
0.035593532 0.24626453 0.45215094 
0.03858916 0.26018217 0.44196528 
0.04520875 0.27002305 0.44282538 
0.052135248 0.27949408 0.44464839 
0.0094885435 0.3489914 0.29061547 
0.014543952 0.36186442 0.28528607 
0.022158096 0.37160644 0.2880379 
0.028010989 0.3835717 0.28515112 
0.03545374 0.3935136 0.28737268 
-0.43029392 -0.38180247 0.2889868 
-0.41962692 -0.37226954 0.2975327 
-0.41240874 -0.36197874 0.29897267 
-0.40564385 -0.35158265 0.2994722 
-0.39468637 -0.34227768 0.30880225 
-0.39021558 -0.33130243 0.3044902 
-0.37837666 -0.32234517 0.31581056 
-0.3704152 -0.31236476 0.3189482 
-0.36516333 -0.30159572 0.31628457 
-0.3560608 -0.2919917 0.32191545 
-0.34926453 -0.28169665 0.3225861 
-0.34149233 -0.27172628 0.3253923 
-0.3329603 -0.26203778 0.32989395 
-0.32430026 -0.2524332 0.3347224 
-0.31771034 -0.24211839 0.3349969 
-0.31153905 -0.23164429 0.33433267 
-0.30656764 -0.22069559 0.33095765 
-0.30174008 -0.20965083 0.32721344 
-0.29410085 -0.19971088 0.32981303 
-0.2849294 -0.19043489 0.33593976 
-0.28231797 -0.17838632 0.3270448 
-0.27779943 -0.16708633 0.3224521 
-0.27301848 -0.15585287 0.3184099 
-0.26337755 -0.14684214 0.3256873 
-0.25768384 -0.13600978 0.32375258 
-0.2502417 -0.12601127 0.32592887 
-0.24444073 -0.11520262 0.32421532 
-0.23781854 -0.10479462 0.32444286 
-0.23167695 -0.09412874 0.32350796 
-0.22790256 -0.082162455 0.31681323 
-0.22048563 -0.072142445 0.31891957 
-0.21478543 -0.061162513 0.3168297 
-0.20685576 -0.05145279 0.32021597 
-0.2013131 -0.040351152 0.31770298 
-0.19723865 -0.028319735 0.31147826 
-0.18870364 -0.01899685 0.31639886 
-0.18393248 -0.00732057 0.31183815 
-0.17721193 0.003141015 0.31218335 
-0.17046878 0.013589677 0.31258404 
-0.16521972 0.025059197 0.30912304 
-0.15872377 0.03570575 0.3088521 
-0.133706 0.033167005 0.35705242 
-0.09940079 0.023307936 0.43035948 
-0.08718167 0.029005164 0.44605568 
-0.080794744 0.038949147 0.44638175 
-0.07508938 0.04942374 0.44487277 
-0.06929769 0.05985443 0.44356987 
-0.06287431 0.06979675 0.44396386 
-0.056786474 0.080017254 0.44343525 
-0.050624628 0.0901883 0.44309667 
-0.042812105 0.09895187 0.4473407 
-0.039083492 0.11124832 0.44018966 
-0.03226024 0.12087417 0.4416661 
-0.024300197 0.12945057 0.4463891 
-0.019401476 0.14082171 0.44240466 
-0.011310001 0.14922059 0.4475666 
-0.0059496956 0.16020252 0.44485864 
0.0004885218 0.17016277 0.44525924 
0.007314938 0.17973366 0.44680345 
0.012330786 0.19114892 0.44298133 
0.01911134 0.20077613 0.44437888 
0.026583506 0.20965359 0.44787744 
0.03208266 0.22063538 0.44542125 
0.03763204 0.23160249 0.44307265 
0.04347144 0.24228178 0.44157505 
0.052158725 0.2497103 0.44891396 
0.057532232 0.26093057 0.44596034 
0.06302395 0.27205896 0.44332483 
0.019396812 0.34308946 0.283945 
0.02709004 0.35271394 0.28699923 
0.033464395 0.3639704 0.28581813 
0.039305583 0.37593988 0.28286463 
0.04709475 0.38540235 0.2862759 
0.053797085 0.3962765 0.28612146 
-0.40145817 -0.3805257 0.30924973 
-0.39225176 -0.3707819 0.31497145 
-0.38413286 -0.36081657 0.31844583 
-0.37645066 -0.35076603 0.32102215 
-0.36914602 -0.34063366 0.3228127 
-0.35978708 -0.3310824 0.3290344 
-0.35489374 -0.320302 0.3256627 
-0.34662643 -0.31048825 0.3295827 
-0.33651903 -0.3012731 0.33756122 
-0.3304052 -0.29085836 0.33684552 
-0.3243559 -0.28041047 0.33597356 
-0.32272494 -0.26844928 0.32526955 
-0.3144448 -0.2587077 0.3292957 
-0.3089428 -0.24799702 0.32711962 
-0.30135742 -0.23803514 0.32962 
-0.29547384 -0.22744033 0.32827604 
-0.28749377 -0.21765447 0.33170146 
-0.28447163 -0.20588367 0.32376567 
-0.2751408 -0.19666326 0.33031458 
-0.2712637 -0.1851614 0.324254 
-0.26532587 -0.17450187 0.32293534 
-0.25987816 -0.16360106 0.32044217 
-0.25382948 -0.15294884 0.3193351 
-0.2486277 -0.14187482 0.3161927 
-0.24012725 -0.13237993 0.32090515 
-0.23397397 -0.12174846 0.32001364 
-0.22831199 -0.11084848 0.31791407 
-0.22331084 -0.099571 0.31417096 
-0.2172746 -0.0888084 0.3129147 
-0.21043281 -0.0784737 0.31362522 
-0.203728 -0.068062946 0.31399733 
-0.1966399 -0.057873655 0.3153258 
-0.18767034 -0.04881444 0.32139698 
-0.18371922 -0.036755666 0.31483448 
-0.17954376 -0.024757482 0.30875257 
-0.17176662 -0.014984514 0.31182078 
-0.16689268 -0.0033442953 0.30742913 
-0.16066067 0.007445282 0.30650094 
-0.15529475 0.018843021 0.3032888 
-0.14896297 0.029610114 0.3025692 
-0.1296773 0.03115229 0.33615753 
-0.09551002 0.021459771 0.40988836 
-0.07442094 0.020639038 0.44948778 
-0.0695233 0.03166807 0.44583932 
-0.06351421 0.041883547 0.44515973 
-0.057490572 0.052101843 0.44450358 
-0.050540373 0.061583757 0.44638902 
-0.04550562 0.07263283 0.44296896 
-0.038710874 0.08224471 0.44442064 
-0.033401772 0.093124926 0.44169685 
-0.026066063 0.10226364 0.44468194 
-0.020983718 0.11339299 0.4412572 
-0.012514145 0.12147131 0.44753483 
-0.005593856 0.13092265 0.44940048 
-0.00045364385 0.14205255 0.44608125 
0.007880863 0.15012771 0.45211485 
0.012896525 0.16142026 0.44838107 
0.02008517 0.17057213 0.45108148 
0.024851916 0.18219167 0.446517 
0.0314205 0.19198532 0.447346 
0.037856113 0.20191714 0.44777307 
0.04115701 0.2152761 0.4385301 
0.048599474 0.22415505 0.4420082 
0.055589616 0.2335065 0.4441163 
0.06268112 0.24271812 0.44657022 
0.07148677 0.24987905 0.45451418 
0.07251395 0.26629144 0.43760735 
0.079936735 0.27511275 0.44111544 
0.039422438 0.34379768 0.28821167 
0.04622039 0.3544741 0.2884505 
0.053427037 0.36462462 0.29004058 
0.058845267 0.37712502 0.2856619 
0.06691997 0.38611883 0.29016763 
-0.3835904 -0.3886621 0.32066396 
-0.37162936 -0.37963033 0.33238226 
-0.36421695 -0.36958945 0.3344938 
-0.36090434 -0.35852116 0.32780987 
-0.34911323 -0.34962532 0.33937043 
-0.3459768 -0.3384596 0.33224684 
-0.33989975 -0.32805827 0.3314636 
-0.3323488 -0.31807888 0.33390334 
-0.32625914 -0.307672 0.33313715 
-0.3212538 -0.29691055 0.3299486 
-0.31422472 -0.28677356 0.33123764 
-0.30971545 -0.27579504 0.32687747 
-0.30238768 -0.26574937 0.3288264 
-0.29626215 -0.25528628 0.32806155 
-0.29175502 -0.24421163 0.32358596 
-0.28633538 -0.23343557 0.32114893 
-0.27808267 -0.2237424 0.32522213 
-0.27267686 -0.21293399 0.32272214 
-0.26660535 -0.20237194 0.3217423 
-0.26027456 -0.1919055 0.32135436 
-0.257012 -0.18008065 0.3137006 
-0.24833561 -0.17061795 0.31882676 
-0.2434183 -0.15945815 0.3150133 
-0.23431166 -0.15024944 0.32123196 
-0.23115094 -0.13819224 0.31312013 
-0.22251669 -0.12879072 0.31823897 
-0.21722214 -0.11771887 0.3152272 
-0.21110305 -0.107044406 0.3142054 
-0.2039472 -0.096914165 0.31573752 
-0.19796874 -0.086141974 0.31434157 
-0.19176963 -0.07547416 0.31347588 
-0.18744843 -0.06369857 0.30784297 
-0.18020159 -0.053597804 0.30957797 
-0.17300428 -0.043480195 0.3112016 
-0.16854794 -0.03166407 0.30577233 
-0.16204427 -0.021088338 0.30557835 
-0.15453939 -0.011158453 0.30799 
-0.14932257 0.00027890975 0.30441037 
-0.14052945 0.009319799 0.31024194 
-0.13667393 0.021748936 0.3029878 
-0.12826435 0.031016534 0.3078452 
-0.09489078 0.022012157 0.38018572 
-0.06337116 0.013541643 0.4484687 
-0.058883015 0.024863707 0.4436711 
-0.052627098 0.034873217 0.4436738 
-0.04394485 0.042959545 0.45040607 
-0.039293833 0.054243613 0.44595465 
-0.033915535 0.06498544 0.4434807 
-0.026806666 0.07429899 0.44587216 
-0.019701673 0.08359244 0.44827974 
-0.015096705 0.095067516 0.44352147 
-0.007192524 0.10363863 0.44824868 
-0.0023906769 0.11500654 0.4439798 
0.0056529627 0.12339628 0.44917586 
0.00978928 0.13546325 0.44286236 
0.01869392 0.14296539 0.45068422 
0.023214506 0.15473622 0.44542667 
0.02956251 0.16472761 0.44562122 
0.03724646 0.17333935 0.44989282 
0.04243681 0.18453468 0.44654456 
0.0491697 0.19412054 0.44792303 
0.054169625 0.20559843 0.44389415 
0.060980454 0.21511026 0.44550297 
0.06599163 0.22666244 0.4414088 
0.073703974 0.23513356 0.4458961 
0.07687789 0.24893676 0.435785 
